# .PCD v0.7 - Point Cloud Data file format
VERSION 0.7
FIELDS x y z rgba
SIZE 4 4 4 4
TYPE F F F U
COUNT 1 1 1 1
WIDTH 1200
HEIGHT 1
VIEWPOINT 0 0 0 1 0 0 0
POINTS 1200
DATA ascii
1.2333984 0.73535156 1.6562916 11580590
1.2392578 0.73715961 1.6552734 11515053
1.2392578 0.73535156 1.6572114 11515053
1.2451172 0.73710573 1.6552734 11515052
1.2451172 0.73535156 1.6572909 11515052
1.2509766 0.73760968 1.6552734 11515054
1.2509766 0.73535156 1.6578654 11515054
1.2568359 0.73711371 1.6552734 11515052
1.2568359 0.73535156 1.6573697 11515052
1.2626953 0.73682094 1.6552734 11318440
1.2626953 0.73535156 1.6569303 11318440
1.2685547 0.73701322 1.6552734 11318442
1.2685547 0.73535156 1.6585135 11449515
1.2744141 0.73905933 1.6552734 11384236
1.2744141 0.73535156 1.6607491 11449260
1.2802734 0.74047446 1.6552734 11514796
1.4760884 0.67089844 1.7724609 11120803
1.4794922 0.67161137 1.7724609 11317669
1.4794922 0.67089844 1.773381 11317669
1.4853516 0.67206591 1.7724609 11383719
1.4853516 0.67089844 1.7736158 11383719
1.4912109 0.67357916 1.7724609 11121062
1.4912109 0.67089844 1.775352 11121062
1.4970703 0.67458618 1.7724609 11252391
1.4970703 0.67089844 1.7769676 11186598
1.3154297 0.71742123 1.6904297 11383978
1.3212891 0.7172308 1.6904297 11383979
1.3271484 0.71752006 1.6904297 11449516
1.3086356 0.68261719 1.7373047 11121835
1.3095703 0.68284285 1.7373047 11121835
1.3095703 0.68261719 1.7376028 11121835
1.2192878 0.72949219 1.6611328 11449261
1.2216797 0.73015648 1.6611328 11449261
1.2216797 0.72949219 1.6618865 11449261
1.2275391 0.72982353 1.6611328 11449263
1.2275391 0.72949219 1.6615144 11449263
1.2333984 0.73122716 1.6611328 11449261
1.2333984 0.72949219 1.6632968 11449261
1.2392578 0.73221743 1.6611328 11384235
1.2392578 0.72949219 1.6645231 11449517
1.2451172 0.73237967 1.6611328 11449516
1.2451172 0.72949219 1.6645448 11449517
1.2509766 0.7328831 1.6611328 11580589
1.2509766 0.72949219 1.6659067 11515053
1.2568359 0.7324208 1.6611328 11383981
1.2568359 0.72949219 1.665082 11383980
1.2626953 0.73256141 1.6611328 11318439
1.2626953 0.72949219 1.6650369 11383722
1.2685547 0.73398083 1.6611328 11449515
1.2685547 0.72949219 1.6665869 11383980
1.2744141 0.73509443 1.6611328 11449260
1.5029297 0.7290011 1.7021484 11515302
1.5029297 0.72363281 1.7065417 11515305
1.5087891 0.72868127 1.7021484 11515049
1.5087891 0.72363281 1.7064323 11580588
1.5146484 0.72363281 1.7071285 11580584
1.1468912 0.71777344 1.6669922 11252140
1.1513672 0.71817225 1.6669922 11317933
1.1513672 0.71777344 1.6675273 11317933
1.1572266 0.7184512 1.6669922 11318445
1.1572266 0.71777344 1.6678344 11318445
1.1630859 0.71902186 1.6669922 11121067
1.1630859 0.71777344 1.6687305 11121067
1.1689453 0.72016245 1.6669922 11252395
1.1689453 0.71777344 1.6702815 11186860
1.1748047 0.72060728 1.6669922 11252652
1.1748047 0.71777344 1.6714283 11252652
1.1806641 0.72154272 1.6669922 11318440
1.1865234 0.7215659 1.6669922 11383980
1.1865234 0.71777344 1.6727259 11383724
1.1923828 0.72235626 1.6669922 11383979
1.1923828 0.71777344 1.6721712 11318187
1.1982422 0.72268546 1.6669922 11449515
1.2041016 0.72290057 1.6669922 11515309
1.2099609 0.72353053 1.6669922 11383725
1.2158203 0.72323483 1.6669922 11449263
1.6793196 0.63574219 1.8486328 10857634
1.6845703 0.63611799 1.8486328 10923425
1.6845703 0.63574219 1.8489046 10923425
1.0378735 0.72949219 1.6435547 10923428
1.0400391 0.72997868 1.6435547 10923428
1.0400391 0.72949219 1.6442215 10923428
1.0458984 0.73073262 1.6435547 10858407
1.0458984 0.72949219 1.6450566 10858407
1.0517578 0.73042613 1.6435547 10792358
1.0517578 0.72949219 1.6449986 10792358
1.0576172 0.73090559 1.6435547 10792616
1.0576172 0.72949219 1.6460536 10792616
1.0634766 0.73044103 1.6435547 10857898
1.0634766 0.72949219 1.6450498 10857898
1.0693359 0.73069704 1.6435547 10989225
1.0693359 0.72949219 1.6451151 10989225
1.0751953 0.73057544 1.6435547 11120296
1.0751953 0.72949219 1.6449208 11120296
1.0810547 0.73004436 1.6435547 11186090
1.0810547 0.72949219 1.6442457 11186090
1.0869141 0.73039633 1.6435547 11185834
1.0869141 0.72949219 1.6446253 11185834
1.0927734 0.73101485 1.6435547 10989223
1.0927734 0.72949219 1.6458098 10989223
1.0986328 0.73185521 1.6435547 11186604
1.0986328 0.72949219 1.6468036 11252139
1.1044922 0.73259228 1.6435547 11186604
1.1044922 0.72949219 1.6469426 11120554
1.1103516 0.73381793 1.6435547 11252139
1.1103516 0.72949219 1.648446 11120553
1.1162109 0.73342299 1.6435547 11317932
1.1162109 0.72949219 1.6486518 11251884
1.1220703 0.73220986 1.6435547 11252650
1.1220703 0.72949219 1.6478351 11187113
1.1059434 0.72363281 1.6552734 10923686
1.1123801 0.72363281 1.6552734 11120809
1.1103516 0.72413766 1.6552734 11120809
1.1103516 0.72363281 1.6558784 11120809
1.124869 0.72363281 1.6552734 11121578
1.5029297 0.72228467 1.7080078 11515305
1.5029297 0.71777344 1.7130569 11449256
1.5087891 0.72227377 1.7080078 11580588
1.5146484 0.72275662 1.7080078 11580584
1.0633241 0.73535156 1.6376953 10988970
1.0634766 0.73538709 1.6376953 10988970
1.0634766 0.73535156 1.6377347 10988970
1.0693495 0.73535156 1.6376953 11054505
1.0693359 0.73535615 1.6376953 11054505
1.0693359 0.73535156 1.6377009 11054505
1.0998706 0.73535156 1.6376953 11252140
1.1044922 0.73622179 1.6376953 11186348
1.1044922 0.73535156 1.6389387 11186348
1.1103516 0.73713481 1.6376953 11120809
1.1103516 0.73535156 1.6405795 11120809
1.1162109 0.73779726 1.6376953 11252139
1.1162109 0.73535156 1.6411499 11317932
1.1220703 0.7376079 1.6376953 11252649
1.1220703 0.73535156 1.6402611 11252649
1.3289254 0.71777344 1.6904297 11449516
1.3330078 0.71867335 1.6904297 11514797
1.3330078 0.71777344 1.6915574 11514797
1.3388672 0.71941006 1.6904297 11515052
1.3388672 0.71777344 1.6926869 11515052
1.3447266 0.72024119 1.6904297 11514797
1.3447266 0.71777344 1.6937985 11514797
1.3505859 0.72069997 1.6904297 11581099
1.3505859 0.71777344 1.6952131 11646634
1.3564453 0.72149116 1.6904297 11580332
1.3564453 0.71777344 1.6957449 11580843
1.3623047 0.72159421 1.6904297 11580845
1.3681641 0.72224301 1.6904297 11581101
1.3740234 0.72227889 1.6904297 11515561
1.3798828 0.72260028 1.6904297 11581099
1.3857422 0.72287297 1.6904297 11580842
1.3916016 0.72334206 1.6904297 11580842
1.8070638 0.68847656 1.7900391 2830888
1.8076172 0.68874896 1.7900391 2830888
1.8076172 0.68847656 1.7915925 2830888
1.7799419 0.64160156 1.8603516 3030551
1.3352706 0.72363281 1.6845703 11514796
1.3388672 0.72383666 1.6845703 11580588
1.3388672 0.72363281 1.6848255 11580588
1.3447266 0.72493058 1.6845703 11514798
1.3447266 0.72363281 1.6864733 11514798
1.3505859 0.72526336 1.6845703 11580842
1.3505859 0.72363281 1.6868256 11580842
1.3564453 0.72611046 1.6845703 11580587
1.3564453 0.72363281 1.6879593 11580332
1.3623047 0.72620744 1.6845703 11580588
1.3623047 0.72363281 1.6879457 11580845
1.3681641 0.72677636 1.6845703 11580590
1.3681641 0.72363281 1.6888046 11581101
1.3740234 0.72698438 1.6845703 11581100
1.3740234 0.72363281 1.6889521 11515561
1.3798828 0.72724551 1.6845703 11515563
1.3798828 0.72363281 1.6891873 11581099
1.3857422 0.72726649 1.6845703 11580587
1.3857422 0.72363281 1.6895313 11580842
1.3916016 0.7276395 1.6845703 11580587
1.3916016 0.72363281 1.6900672 11580842
1.3974609 0.72898209 1.6845703 11514796
1.7888898 0.64746094 1.8486328 2832946
1.7841797 0.64985609 1.8486328 2700596
1.3154297 0.73491591 1.6669922 11449771
1.0510054 0.71191406 1.6669922 10792103
1.0517578 0.71211982 1.6669922 10792103
1.0517578 0.71191406 1.6672674 10792103
1.0576172 0.712107 1.6669922 10792360
1.0576172 0.71191406 1.6672533 10792360
1.0634766 0.71337569 1.6669922 10923686
1.0634766 0.71191406 1.6689804 10923686
1.0693359 0.71369141 1.6669922 10923687
1.0693359 0.71191406 1.6689262 10923687
1.0751953 0.71358663 1.6669922 11120810
1.0751953 0.71191406 1.6691247 11120810
1.0810547 0.71420318 1.6669922 10989228
1.0810547 0.71191406 1.6704924 11054505
1.0869141 0.71437812 1.6669922 10989221
1.0869141 0.71191406 1.6706611 10989221
1.0927734 0.7144506 1.6669922 11186345
1.0927734 0.71191406 1.6704957 11186601
1.0986328 0.71512371 1.6669922 11120811
1.0986328 0.71191406 1.6708611 11054760
1.1044922 0.71470362 1.6669922 11317674
1.1044922 0.71191406 1.6708453 11186347
1.1103516 0.71512222 1.6669922 11120812
1.1103516 0.71191406 1.6716037 11186348
1.1162109 0.71475512 1.6669922 10923943
1.1162109 0.71191406 1.6715004 11055272
1.1220703 0.71552271 1.6669922 11121322
1.1220703 0.71191406 1.6717918 11252138
1.7771326 0.68261719 1.7958984 6315869
1.7794567 0.68261719 1.7958984 6315869
1.7783203 0.68301398 1.7958984 6315869
1.7783203 0.68261719 1.7962517 6315869
1.7930952 0.68261719 1.7958984 3292206
1.7958984 0.68318969 1.7958984 3292206
1.7958984 0.68261719 1.7963626 3292206
1.8017578 0.68342048 1.7958984 3554367
1.8017578 0.68261719 1.7967583 3554367
1.8076172 0.68657154 1.7958984 2896426
1.8076172 0.68261719 1.7986339 2041374
1.3154297 0.70891696 1.7021484 11449515
1.3154297 0.70605469 1.7067777 11449518
1.3212891 0.70961702 1.7021484 11449517
1.3271484 0.71075946 1.7021484 11515050
1.3330078 0.71099353 1.7021484 11514796
1.3197489 0.73535156 1.6669922 11449514
1.3212891 0.73557246 1.6669922 11449514
1.3212891 0.73535156 1.6672068 11449514
1.3271484 0.73705226 1.6669922 11580845
1.3271484 0.73535156 1.6689405 11580845
1.3330078 0.73751742 1.6669922 11515308
1.3330078 0.73535156 1.6692772 11515308
1.3388672 0.73791522 1.6669922 11580842
1.3388672 0.73535156 1.6703718 11580844
1.3447266 0.73798674 1.6669922 11515054
1.3447266 0.73535156 1.6697291 11515054
1.3505859 0.73849392 1.6669922 11646380
1.3505859 0.73535156 1.67061 11646380
1.3564453 0.73888713 1.6669922 11711917
1.3564453 0.73535156 1.6715518 11515052
1.3623047 0.73966932 1.6669922 11712173
1.3623047 0.73535156 1.672352 11580845
1.3681641 0.74000412 1.6669922 11515310
1.3740234 0.74082029 1.6669922 11646894
1.158345 0.72363281 1.6611328 11318187
1.1630859 0.72377193 1.6611328 11252395
1.1630859 0.72363281 1.6613111 11252395
1.1689453 0.72475332 1.6611328 11252396
1.1689453 0.72363281 1.6624689 11252396
1.1748047 0.72490668 1.6611328 11252652
1.1748047 0.72363281 1.6625438 11252652
1.1806641 0.72638065 1.6611328 11318442
1.1806641 0.72363281 1.6638223 11318442
1.1865234 0.72690153 1.6611328 11449517
1.1865234 0.72363281 1.6645105 11383980
1.1923828 0.72659397 1.6611328 11449517
1.1923828 0.72363281 1.6650292 11383979
1.1982422 0.72722441 1.6611328 11383980
1.1982422 0.72363281 1.6659154 11449515
1.2041016 0.72805542 1.6611328 11515311
1.2041016 0.72363281 1.6662267 11515309
1.2099609 0.72775632 1.6611328 11383982
1.2099609 0.72363281 1.6668569 11383725
1.2158203 0.72859401 1.6611328 11449518
1.2158203 0.72363281 1.6665083 11449263
1.2234339 0.71191406 1.6845703 11383725
1.2275391 0.71274054 1.6845703 11318187
1.2275391 0.71191406 1.6856263 11318187
1.2333984 0.71375436 1.6845703 11252906
1.2333984 0.71191406 1.6872067 11252906
1.2392578 0.71402901 1.6845703 11252907
1.2392578 0.71191406 1.6876407 11318443
1.2451172 0.71481591 1.6845703 11252906
1.2451172 0.71191406 1.6898005 11318443
1.2509766 0.71540254 1.6845703 11449260
1.2509766 0.71191406 1.6903023 11318186
1.2568359 0.71554613 1.6845703 11515311
1.2626953 0.71602714 1.6845703 11449517
1.2685547 0.71755785 1.6845703 11383980
1.7986029 0.67675781 1.8076172 3226410
1.8017578 0.67719823 1.8076172 3226154
1.8017578 0.67675781 1.8091607 3226154
1.8076172 0.6783939 1.8076172 2304035
1.7841797 0.65332031 1.8468702 0
1.0481573 0.70605469 1.6728516 10661031
1.0517578 0.70721263 1.6728516 10792359
1.0517578 0.70605469 1.6741275 10792359
1.0576172 0.70804781 1.6728516 10792357
1.0576172 0.70605469 1.6755382 10792357
1.0634766 0.70836759 1.6728516 10792613
1.0634766 0.70605469 1.675738 10792613
1.0693359 0.70843512 1.6728516 10923685
1.0693359 0.70605469 1.6768479 10923685
1.0751953 0.70897573 1.6728516 10923430
1.0751953 0.70605469 1.6780858 10923945
1.0810547 0.70963854 1.6728516 11054505
1.0810547 0.70605469 1.6775937 10989226
1.0869141 0.71003091 1.6728516 10989221
1.0869141 0.70605469 1.6785213 10989478
1.0927734 0.71000004 1.6728516 11186601
1.0927734 0.70605469 1.6773627 11120809
1.0986328 0.71007055 1.6728516 11054760
1.0986328 0.70605469 1.678093 11120551
1.1044922 0.71029514 1.6728516 11186347
1.1044922 0.70605469 1.6777123 11317419
1.1103516 0.71088958 1.6728516 11186348
1.1162109 0.71079737 1.6728516 11055272
1.1220703 0.71118402 1.6728516 11252138
1.1220703 0.70605469 1.6784093 11252139
1.682954 0.68261719 1.7841797 11054756
1.6845703 0.68302822 1.7841797 11054756
1.6845703 0.68261719 1.7846249 11054756
1.6904297 0.73736548 1.7138672 11318184
1.6904297 0.73535156 1.716612 11318184
1.6962891 0.73780233 1.7138672 11318184
1.6962891 0.73535156 1.7169871 11318183
1.7021484 0.73826396 1.7138672 11186343
1.7021484 0.73535156 1.7176636 11186599
1.7080078 0.73924124 1.7138672 11251881
1.7080078 0.73535156 1.7179828 11317416
1.7138672 0.73916751 1.7138672 11317929
1.7138672 0.73535156 1.7184726 11317929
1.7197266 0.73949844 1.7138672 11252135
1.7197266 0.73535156 1.7188293 11317671
1.7255859 0.74044138 1.7138672 11317674
1.7255859 0.73535156 1.7197237 11186345
1.8007944 0.67089844 1.8134766 2966323
1.8017578 0.67132068 1.8134766 2966323
1.8017578 0.67089844 1.8144425 2966323
1.2181959 0.70605469 1.6904297 11317931
1.2216797 0.70698476 1.6904297 11318187
1.2216797 0.70605469 1.691916 11318187
1.2275391 0.70819855 1.6904297 11318187
1.2275391 0.70605469 1.6937929 11252393
1.2333984 0.70926124 1.6904297 11252650
1.2333984 0.70605469 1.6955856 11252650
1.2392578 0.70965052 1.6904297 11318443
1.2392578 0.70605469 1.6956549 11252394
1.2451172 0.71143639 1.6904297 11318443
1.2509766 0.71182513 1.6904297 11318186
1.2753491 0.73535156 1.6611328 11449260
1.2802734 0.73680371 1.6611328 11383724
1.2802734 0.73535156 1.6634909 11383724
1.2861328 0.73796892 1.6611328 11449261
1.2861328 0.73535156 1.6644375 11449261
1.2919922 0.73915547 1.6611328 11515053
1.2919922 0.73535156 1.6648746 11449516
1.2978516 0.73912477 1.6611328 11580844
1.2978516 0.73535156 1.6654763 11646381
1.3037109 0.73949569 1.6611328 11580587
1.3037109 0.73535156 1.6660676 11580589
1.3095703 0.73994386 1.6611328 11449771
1.3095703 0.73535156 1.6663527 11514794
1.3154297 0.71266681 1.6962891 11449516
1.3154297 0.71191406 1.6972383 11449516
1.3212891 0.71320212 1.6962891 11449518
1.3212891 0.71191406 1.6978831 11449518
1.3271484 0.71451592 1.6962891 11449514
1.3271484 0.71191406 1.7004622 11515050
1.3330078 0.71508324 1.6962891 11514797
1.3330078 0.71191406 1.7007302 11514796
1.3388672 0.71580791 1.6962891 11515052
1.3447266 0.71625751 1.6962891 11514797
1.3505859 0.71714854 1.6962891 11646634
1.3564453 0.71739495 1.6962891 11580843
1.2699769 0.72949219 1.6669922 11383980
1.2744141 0.73070842 1.6669922 11383724
1.2744141 0.72949219 1.6680982 11383724
1.2802734 0.73256034 1.6669922 11449516
1.2802734 0.72949219 1.6700389 11383468
1.2861328 0.73307258 1.6669922 11449261
1.2861328 0.72949219 1.6710055 11449262
1.2919922 0.73355579 1.6669922 11449516
1.2919922 0.72949219 1.6721669 11515310
1.2978516 0.73442465 1.6669922 11646381
1.2978516 0.72949219 1.6723464 11515053
1.3037109 0.73469275 1.6669922 11580589
1.3095703 0.73499936 1.6669922 11514794
1.5194478 0.72363281 1.7080078 11580584
1.5205078 0.72390348 1.7080078 11580584
1.5205078 0.72363281 1.7083377 11580584
1.5263672 0.72654605 1.7080078 11449255
1.5263672 0.72363281 1.7120614 11515303
1.5322266 0.72738701 1.7080078 11449770
1.5322266 0.72363281 1.7130259 11515304
1.5380859 0.72850424 1.7080078 11580585
1.5029297 0.73847169 1.6904297 11449770
1.5029297 0.73535156 1.694613 11383976
1.5087891 0.73928386 1.6904297 11449257
1.5146484 0.74007529 1.6904297 11515047
1.5146484 0.73535156 1.6955942 11449511
1.5205078 0.73914647 1.6904297 11580841
1.5205078 0.73535156 1.695624 11515049
1.1789824 0.71777344 1.6728516 11449514
1.1854795 0.71777344 1.6728516 11383724
1.1806641 0.71824586 1.6728516 11449514
1.1806641 0.71777344 1.6734809 11449514
1.1953629 0.71777344 1.6728516 11318186
1.1982422 0.71850926 1.6728516 11318186
1.1982422 0.71777344 1.6738244 11318186
1.2041016 0.71835214 1.6728516 11383723
1.2041016 0.71777344 1.6734121 11383723
1.2099609 0.71862537 1.6728516 11318186
1.2099609 0.71777344 1.6736823 11318186
1.2158203 0.71963841 1.6728516 11252397
1.2158203 0.71777344 1.6749763 11252397
1.2216797 0.7204845 1.6728516 11383981
1.2216797 0.71777344 1.6762179 11449261
1.2275391 0.72106504 1.6728516 11449007
1.2275391 0.71777344 1.6774782 11383724
1.2333984 0.72263044 1.6728516 11449260
1.2333984 0.71777344 1.6786608 11383722
1.2392578 0.72304446 1.6728516 11383981
1.2451172 0.72306919 1.6728516 11383980
1.3607268 0.71777344 1.6962891 11515051
1.3623047 0.71792156 1.6962891 11515051
1.3623047 0.71777344 1.6964748 11515051
1.3681641 0.71824336 1.6962891 11515051
1.3681641 0.71777344 1.6969259 11515051
1.3740234 0.71864778 1.6962891 11383977
1.3740234 0.71777344 1.6976782 11383977
1.3798828 0.71847081 1.6962891 11449514
1.3798828 0.71777344 1.6972973 11449514
1.3857422 0.71896452 1.6962891 11515306
1.3857422 0.71777344 1.6983608 11515306
1.3916016 0.71954596 1.6962891 11449515
1.3916016 0.71777344 1.6992555 11580845
1.3974609 0.72127581 1.6962891 11515052
1.3974609 0.71777344 1.701249 11515053
1.4033203 0.72191131 1.6962891 11515050
1.4033203 0.71777344 1.7020463 11515051
1.4091797 0.7227878 1.6962891 11515307
1.505699 0.71777344 1.7138672 11449256
1.5087891 0.71857446 1.7138672 11514796
1.5087891 0.71777344 1.71503 11514796
1.5146484 0.71868002 1.7138672 11580585
1.5146484 0.71777344 1.7151166 11580585
1.5205078 0.71883392 1.7138672 11580328
1.5205078 0.71777344 1.7152653 11580328
1.5263672 0.72204357 1.7138672 11515303
1.5263672 0.71777344 1.7184209 11449255
1.5322266 0.72298568 1.7138672 11515304
1.6904297 0.71706563 1.7431641 11186600
1.6904297 0.71191406 1.7465074 11120807
1.6962891 0.71659279 1.7431641 11186600
1.6962891 0.71191406 1.7477689 11120805
1.7021484 0.71688235 1.7431641 11121063
1.7021484 0.71191406 1.7477341 11055270
1.7080078 0.71611565 1.7431641 11121064
1.7138672 0.71759212 1.7431641 11055271
1.3929505 0.72363281 1.6904297 11580842
1.3974609 0.72489846 1.6904297 11515053
1.3974609 0.72363281 1.6923392 11515053
1.4033203 0.72622377 1.6904297 11515050
1.4033203 0.72363281 1.6940478 11515050
1.4091797 0.72740841 1.6904297 11515306
1.4091797 0.72363281 1.6953819 11515307
1.4150391 0.72907728 1.6904297 11515306
1.5029297 0.73431838 1.6962891 11383976
1.5029297 0.72949219 1.7015646 11515302
1.5087891 0.72949219 1.7006389 11515049
1.5146484 0.73473358 1.6962891 11449511
1.5205078 0.73479831 1.6962891 11515049
1.3154297 0.7298637 1.6728516 11449515
1.3154297 0.72949219 1.6733927 11449515
1.3212891 0.73112071 1.6728516 11383978
1.3212891 0.72949219 1.6751574 11383978
1.3271484 0.73221701 1.6728516 11515052
1.3271484 0.72949219 1.6763521 11515052
1.3330078 0.73232138 1.6728516 11514797
1.3330078 0.72949219 1.6763533 11515052
1.3388672 0.73314983 1.6728516 11580844
1.3388672 0.72949219 1.6772864 11515051
1.3447266 0.73292798 1.6728516 11580846
1.3447266 0.72949219 1.6776649 11646126
1.3505859 0.73360795 1.6728516 11646380
1.3564453 0.73442662 1.6728516 11515052
1.3623047 0.73496056 1.6728516 11580845
1.5029297 0.71714973 1.7138672 11449256
1.5029297 0.71191406 1.7191508 11449259
1.3662982 0.73535156 1.6728516 11580846
1.3681641 0.73553681 1.6728516 11580846
1.3681641 0.73535156 1.6730822 11580846
1.3740234 0.73610991 1.6728516 11581100
1.3740234 0.73535156 1.6737679 11581100
1.3798828 0.7370376 1.6728516 11515307
1.3798828 0.73535156 1.674926 11515307
1.3857422 0.73679596 1.6728516 11580843
1.3857422 0.73535156 1.6741507 11580843
1.3916016 0.73733062 1.6728516 11580844
1.3916016 0.73535156 1.6748878 11580844
1.3974609 0.7387464 1.6728516 11646637
1.3974609 0.73535156 1.6759685 11646381
1.4033203 0.73980671 1.6728516 11581101
1.4033203 0.73535156 1.6774297 11515053
1.4091797 0.74038643 1.6728516 11580844
1.4091797 0.73535156 1.6783134 11580843
1.4150391 0.74005425 1.6728516 11580588
1.4208984 0.74049115 1.6728516 11646125
1.217575 0.72363281 1.6669922 11449263
1.2216797 0.72480059 1.6669922 11449005
1.2216797 0.72363281 1.6684952 11449005
1.2275391 0.72506458 1.6669922 11383470
1.2275391 0.72363281 1.6687993 11383470
1.2333984 0.72651708 1.6669922 11383723
1.2333984 0.72363281 1.6712258 11449260
1.2392578 0.72722644 1.6669922 11449517
1.2392578 0.72363281 1.6719691 11383981
1.2451172 0.72733259 1.6669922 11449517
1.2451172 0.72363281 1.6719841 11383980
1.2509766 0.72862685 1.6669922 11515053
1.2568359 0.72815251 1.6669922 11383980
1.2626953 0.72817242 1.6669922 11383722
1.2685547 0.72923249 1.6669922 11383980
1.5029297 0.7114408 1.7197266 11449259
1.31892 0.70605469 1.7080078 11449261
1.3212891 0.7066887 1.7080078 11449261
1.3212891 0.70605469 1.7087666 11449261
1.3271484 0.70729887 1.7080078 11383722
1.3271484 0.70605469 1.7093542 11383722
1.3330078 0.70766437 1.7080078 11449260
1.3330078 0.70605469 1.709855 11449260
1.3388672 0.70816702 1.7080078 11449002
1.3388672 0.70605469 1.7107389 11449002
1.3447266 0.70867753 1.7080078 11449002
1.3447266 0.70605469 1.7112168 11449516
1.3505859 0.7085616 1.7080078 11449769
1.3505859 0.70605469 1.7118527 11581099
1.3564453 0.70897102 1.7080078 11383979
1.3564453 0.70605469 1.7118214 11449514
1.3623047 0.70931464 1.7080078 11515051
1.3623047 0.70605469 1.7115369 11449514
1.3681641 0.70987964 1.7080078 11515306
1.3681641 0.70605469 1.7119321 11449515
1.3740234 0.7096563 1.7080078 11383976
1.3740234 0.70605469 1.7124337 11383978
1.3798828 0.70973903 1.7080078 11515051
1.3798828 0.70605469 1.7119355 11449514
1.3857422 0.71037537 1.7080078 11515306
1.3857422 0.70605469 1.7138523 11383976
1.3916016 0.71105605 1.7080078 11449771
1.3916016 0.70605469 1.7129934 11383980
1.8042697 0.67675781 1.8134766 3357483
1.2515249 0.71191406 1.6904297 11318186
1.2568359 0.71263736 1.6904297 11383468
1.2568359 0.71191406 1.691372 11383468
1.2626953 0.71312296 1.6904297 11383722
1.2626953 0.71191406 1.6918975 11383722
1.2685547 0.71398157 1.6904297 11383979
1.2685547 0.71191406 1.6927412 11383979
1.2744141 0.71505374 1.6904297 11514796
1.2744141 0.71191406 1.694997 11449257
1.2802734 0.71525794 1.6904297 11383722
1.2802734 0.71191406 1.6952453 11317928
1.2861328 0.71570659 1.6904297 11515052
1.2861328 0.71191406 1.6952689 11383721
1.2919922 0.71556336 1.6904297 11514796
1.2919922 0.71191406 1.6951853 11383722
1.2978516 0.71700215 1.6904297 11449261
1.3037109 0.71747023 1.6904297 11383724
1.3095703 0.71741724 1.6904297 11383978
1.1085197 0.70605469 1.6787109 10988970
1.1103516 0.70636475 1.6787109 10988970
1.1103516 0.70605469 1.6791162 10988970
1.1170402 0.70605469 1.6787109 10989223
1.1162109 0.70609301 1.6787109 10989223
1.1162109 0.70605469 1.6787709 10989223
1.1231488 0.70605469 1.6787109 11252139
1.7835306 0.65332031 1.8486328 0
1.8030193 0.67089844 1.8193359 3032373
1.3366197 0.71191406 1.7021484 11449260
1.3388672 0.71286494 1.7021484 11449260
1.3388672 0.71191406 1.7030455 11449260
1.3447266 0.71272284 1.7021484 11449516
1.3447266 0.71191406 1.7032511 11449516
1.3505859 0.71294945 1.7021484 11581099
1.3505859 0.71191406 1.7034136 11581099
1.3564453 0.71333587 1.7021484 11515050
1.3564453 0.71191406 1.7042859 11515050
1.3623047 0.7131955 1.7021484 11449514
1.3623047 0.71191406 1.70437 11449514
1.3681641 0.71340823 1.7021484 11449515
1.3681641 0.71191406 1.7047675 11449515
1.3740234 0.71407843 1.7021484 11383978
1.3740234 0.71191406 1.7052324 11383976
1.3798828 0.71424824 1.7021484 11449514
1.3798828 0.71191406 1.705673 11515051
1.3857422 0.71506506 1.7021484 11580842
1.3857422 0.71191406 1.7062441 11515306
1.3916016 0.71572196 1.7021484 11580845
1.3916016 0.71191406 1.7070826 11449771
1.3974609 0.71693045 1.7021484 11515053
1.4033203 0.71770084 1.7021484 11515051
1.2406678 0.70605469 1.6962891 11252394
1.2451172 0.70725244 1.6962891 11318443
1.2451172 0.70605469 1.6977451 11318443
1.2509766 0.7079823 1.6962891 11383723
1.2509766 0.70605469 1.6984323 11383723
1.2568359 0.70832759 1.6962891 11318185
1.2568359 0.70605469 1.6990774 11318185
1.2626953 0.70865017 1.6962891 11317929
1.2626953 0.70605469 1.6993833 11383722
1.2685547 0.70899475 1.6962891 11383980
1.2685547 0.70605469 1.7004666 11383979
1.2744141 0.71090043 1.6962891 11449257
1.2802734 0.71107739 1.6962891 11317928
1.2802734 0.70605469 1.7016019 11449259
1.2861328 0.71098453 1.6962891 11383721
1.2861328 0.70605469 1.7015384 11449771
1.2919922 0.71111882 1.6962891 11383722
1.2919922 0.70605469 1.7016211 11449260
1.7255957 0.73535156 1.7197266 11186345
1.7314453 0.73774207 1.7197266 11186345
1.7314453 0.73535156 1.722486 11186345
1.7373047 0.73868978 1.7197266 11186600
1.7373047 0.73535156 1.7235367 11120810
1.7431641 0.73953068 1.7197266 11186600
1.7431641 0.73535156 1.7252245 11252135
1.7490234 0.74044687 1.7197266 11252392
1.7548828 0.73950773 1.7197266 11186856
1.7548828 0.73535156 1.7250344 11186857
1.7607422 0.74000734 1.7197266 11318442
1.7607422 0.73535156 1.7255101 11252392
1.7666016 0.73958766 1.7197266 11252904
1.7666016 0.73535156 1.7250104 11318440
1.7724609 0.73971945 1.7197266 11384235
1.7724609 0.73535156 1.7248975 11646891
1.7783203 0.7403717 1.7197266 11712180
1.7783203 0.73535156 1.7247105 11317941
1.8134766 0.73535156 1.7252543 4081739
1.8193359 0.73990297 1.7197266 4344393
1.8193359 0.73535156 1.723053 3291958
1.8251953 0.73535156 1.7240117 3094574
1.8310547 0.73933983 1.7197266 2766379
1.8310547 0.73535156 1.7211381 2501927
1.6904297 0.73300761 1.7197266 11252135
1.6904297 0.72949219 1.7239093 11252137
1.6962891 0.73348916 1.7197266 11318183
1.6962891 0.72949219 1.7251017 11317928
1.7021484 0.73366749 1.7197266 11186599
1.7080078 0.73410952 1.7197266 11317416
1.7138672 0.73442882 1.7197266 11317929
1.7197266 0.73461288 1.7197266 11317671
1.7255859 0.735349 1.7197266 11186345
1.5339202 0.72363281 1.7138672 11515304
1.5380859 0.72478074 1.7138672 11515304
1.5380859 0.72363281 1.7150419 11515304
1.5439453 0.72451615 1.7138672 11449512
1.5439453 0.72363281 1.7149309 11449512
1.5498047 0.7252453 1.7138672 11449256
1.5498047 0.72363281 1.7155759 11449256
1.5556641 0.72573286 1.7138672 11383465
1.5556641 0.72363281 1.7163666 11383465
1.5615234 0.72607607 1.7138672 11383722
1.5615234 0.72363281 1.7169886 11449259
1.5673828 0.72656453 1.7138672 11449257
1.5673828 0.72363281 1.7176509 11514794
1.5732422 0.72683322 1.7138672 11449257
1.5732422 0.72363281 1.7176919 11449257
1.5791016 0.72750252 1.7138672 11514794
1.5791016 0.72363281 1.7189311 11449257
1.5849609 0.72862434 1.7138672 11515051
1.3002981 0.72949219 1.6728516 11515053
1.3037109 0.73030961 1.6728516 11514796
1.3037109 0.72949219 1.6739655 11514796
1.3095703 0.72958231 1.6728516 11515053
1.3095703 0.72949219 1.6729485 11515053
1.5300459 0.71777344 1.7197266 11383976
1.5322266 0.71822816 1.7197266 11383976
1.5322266 0.71777344 1.7202309 11383976
1.5380859 0.71921277 1.7197266 11449511
1.5380859 0.71777344 1.7213907 11449511
1.5439453 0.72039658 1.7197266 11449255
1.5439453 0.71777344 1.7221206 11449255
1.5498047 0.72044194 1.7197266 11383719
1.5498047 0.71777344 1.7223402 11383719
1.5556641 0.72072113 1.7197266 11514538
1.5556641 0.71777344 1.7226361 11317930
1.5615234 0.72128373 1.7197266 11449259
1.5615234 0.71777344 1.7229732 11383722
1.5673828 0.72209549 1.7197266 11514794
1.5673828 0.71777344 1.7235641 11449258
1.5732422 0.72203594 1.7197266 11449257
1.5732422 0.71777344 1.7248446 11449257
1.5791016 0.72307348 1.7197266 11449257
1.5791016 0.71777344 1.7251972 11449257
1.4044991 0.71777344 1.7021484 11515051
1.4091797 0.71804261 1.7021484 11449514
1.4091797 0.71777344 1.702558 11449514
1.4150391 0.71904385 1.7021484 11383978
1.4150391 0.71777344 1.7040944 11383978
1.4208984 0.72006047 1.7021484 11449770
1.4208984 0.71777344 1.7053721 11449769
1.4267578 0.72037989 1.7021484 11449769
1.4267578 0.71777344 1.7055349 11449769
1.4326172 0.72051644 1.7021484 11449513
1.4326172 0.71777344 1.7059703 11449513
1.4384766 0.72069746 1.7021484 11318441
1.4384766 0.71777344 1.7058814 11318441
1.4443359 0.72088033 1.7021484 10398368
1.4443359 0.71777344 1.7069751 10397083
1.4501953 0.72118944 1.7021484 10530716
1.4501953 0.71777344 1.7064596 10792862
1.4560547 0.72192097 1.7021484 10858147
1.4560547 0.71777344 1.70768 11383213
1.4619141 0.72260767 1.7021484 11251363
1.4677734 0.72316414 1.7021484 11185313
1.4736328 0.72341263 1.7021484 11185055
1.6904297 0.70973092 1.7490234 11120807
1.6904297 0.70605469 1.7531769 11120551
1.6962891 0.71086025 1.7490234 11120805
1.6962891 0.70605469 1.7538831 11120805
1.7021484 0.71100819 1.7490234 11055270
1.7021484 0.70605469 1.7546606 11055267
1.2337791 0.71777344 1.6787109 11383722
1.2392578 0.7183367 1.6787109 11449771
1.2392578 0.71777344 1.679408 11449771
1.2451172 0.71892756 1.6787109 11318186
1.2451172 0.71777344 1.6801524 11318186
1.2509766 0.71989614 1.6787109 11383723
1.2509766 0.71777344 1.6816711 11449260
1.2568359 0.71930867 1.6787109 11580847
1.2568359 0.71777344 1.6812105 11580847
1.2626953 0.71992463 1.6787109 11383724
1.2626953 0.71777344 1.6821392 11449517
1.2685547 0.72061169 1.6787109 11383724
1.2685547 0.71777344 1.6842396 11383980
1.2744141 0.72171491 1.6787109 11449260
1.2802734 0.72314036 1.6787109 11383466
1.5085968 0.73535156 1.6962891 11449513
1.5090933 0.73535156 1.6962891 11449513
1.5087891 0.7353704 1.6962891 11449513
1.5087891 0.73535156 1.6963142 11449513
1.5217154 0.73535156 1.6962891 11515049
1.5263672 0.73677695 1.6962891 11449769
1.5263672 0.73535156 1.6981909 11449769
1.5322266 0.73755974 1.6962891 11449770
1.5322266 0.73535156 1.6992193 11515050
1.5380859 0.73861527 1.6962891 11449515
1.5380859 0.73535156 1.7005194 11514794
1.5439453 0.73904234 1.6962891 11449515
1.5439453 0.73535156 1.7009948 11514795
1.5498047 0.74038774 1.6962891 11449773
1.5556641 0.74011052 1.6962891 11449771
1.5556641 0.73535156 1.7018203 11514795
1.5615234 0.73999292 1.6962891 11515563
1.5673828 0.74059635 1.6962891 11450026
1.5732422 0.74028957 1.6962891 11515305
1.412239 0.72363281 1.6962891 11515050
1.4150391 0.7241087 1.6962891 11515050
1.4150391 0.72363281 1.6969936 11515050
1.4208984 0.72490168 1.6962891 11515563
1.4208984 0.72363281 1.698177 11515563
1.4267578 0.72548515 1.6962891 11580841
1.4267578 0.72363281 1.698543 11580841
1.4326172 0.72559041 1.6962891 11449513
1.4326172 0.72363281 1.6993233 11383977
1.4384766 0.72575277 1.6962891 11252906
1.4384766 0.72363281 1.6995064 11187372
1.4443359 0.72590333 1.6962891 10529183
1.4443359 0.72363281 1.6994578 10398368
1.4501953 0.72572017 1.6962891 10662044
1.4501953 0.72363281 1.6992563 10530716
1.4560547 0.72627425 1.6962891 11055015
1.4560547 0.72363281 1.7001429 10858147
1.4619141 0.72679406 1.6962891 11448744
1.4619141 0.72363281 1.7006197 11251363
1.4677734 0.72714043 1.6962891 11448488
1.4677734 0.72363281 1.7014624 11185313
1.4736328 0.72840774 1.6962891 11448999
1.4736328 0.72363281 1.7018523 11185055
1.4794922 0.72946 1.6962891 11317927
1.4853516 0.72917062 1.6962891 11383714
1.7079833 0.71191406 1.7490234 11055270
1.7080078 0.71191841 1.7490234 11055270
1.7080078 0.71191406 1.7490332 11055270
1.7138672 0.71366739 1.7490234 11054758
1.7138672 0.71191406 1.7515982 11054758
1.7197266 0.71363795 1.7490234 11055015
1.7197266 0.71191406 1.7515503 11055015
1.7255859 0.71414387 1.7490234 11055271
1.7255859 0.71191406 1.7515037 11055271
1.7314453 0.71564835 1.7490234 11252137
1.7314453 0.71191406 1.7539864 11120808
1.7373047 0.71699733 1.7490234 11054758
1.7490234 0.71775734 1.7490234 11121061
1.7548828 0.7170586 1.7490234 11121063
1.7607422 0.71733415 1.7490234 11514799
1.7666016 0.71698862 1.7490234 11317939
1.7724609 0.71766645 1.7490234 7834251
1.8134766 0.71760243 1.7490234 3488314
1.6904297 0.72836435 1.7255859 11252137
1.6962891 0.72913504 1.7255859 11317928
1.5116885 0.72949219 1.7021484 11515049
1.5146484 0.73016971 1.7021484 11515048
1.5146484 0.72949219 1.7029719 11515048
1.5205078 0.73038 1.7021484 11515048
1.5205078 0.72949219 1.7033039 11515048
1.5263672 0.73164684 1.7021484 11515304
1.5263672 0.72949219 1.7046541 11515304
1.5322266 0.73275286 1.7021484 11515050
1.5322266 0.72949219 1.7060791 11449770
1.5380859 0.73391181 1.7021484 11514794
1.5380859 0.72949219 1.7068909 11580585
1.5439453 0.73432398 1.7021484 11514795
1.5556641 0.73501831 1.7021484 11514795
1.3497394 0.72949219 1.6787109 11646379
1.3505859 0.72961736 1.6787109 11646379
1.3505859 0.72949219 1.6788442 11646379
1.3564453 0.73045456 1.6787109 11514796
1.3564453 0.72949219 1.6797926 11514796
1.3623047 0.73073238 1.6787109 11580590
1.3623047 0.72949219 1.6801121 11580590
1.3681641 0.73128229 1.6787109 11581101
1.3681641 0.72949219 1.6808411 11581101
1.3740234 0.73159337 1.6787109 11515561
1.3740234 0.72949219 1.6811013 11515561
1.3798828 0.73203498 1.6787109 11581099
1.3798828 0.72949219 1.6813558 11581099
1.3857422 0.73208266 1.6787109 11646891
1.3857422 0.72949219 1.6815311 11646891
1.3916016 0.73261023 1.6787109 11580845
1.3916016 0.72949219 1.6821281 11580587
1.3974609 0.73340195 1.6787109 11646381
1.3974609 0.72949219 1.6838555 11514796
1.4033203 0.7343415 1.6787109 11515053
1.4091797 0.7350477 1.6787109 11580843
1.504312 0.71191406 1.7197266 11449259
1.5087891 0.71423829 1.7197266 11514796
1.5087891 0.71191406 1.7224977 11514796
1.5146484 0.71407616 1.7197266 11449512
1.5146484 0.71191406 1.7219065 11449512
1.5205078 0.71504402 1.7197266 11514793
1.5205078 0.71191406 1.7231765 11449000
1.5263672 0.71686351 1.7197266 11449255
1.6904297 0.71990216 1.7373047 11121062
1.6904297 0.71777344 1.742241 11186600
1.6962891 0.72067767 1.7373047 11055012
1.6962891 0.71777344 1.7417371 11186600
1.7021484 0.72081572 1.7373047 11252136
1.7021484 0.71777344 1.742172 11121063
1.7080078 0.72084975 1.7373047 11121064
1.7080078 0.71777344 1.7412068 11121064
1.7138672 0.72180605 1.7373047 11121062
1.7138672 0.71777344 1.7429669 11055271
1.7197266 0.72219151 1.7373047 11186598
1.7255859 0.72287726 1.7373047 11251624
1.8193359 0.72324985 1.7373047 2962468
1.2473936 0.72363281 1.6728516 11383980
1.2509766 0.72456938 1.6728516 11449517
1.2509766 0.72363281 1.6738371 11449517
1.2568359 0.72400051 1.6728516 11449518
1.2568359 0.72363281 1.6731468 11449518
1.2626953 0.72418219 1.6728516 11383725
1.2626953 0.72363281 1.6734124 11383725
1.2685547 0.72543246 1.6728516 11383724
1.2685547 0.72363281 1.674613 11383724
1.2744141 0.72650254 1.6728516 11449515
1.2744141 0.72363281 1.6762028 11449260
1.2802734 0.72763872 1.6728516 11383468
1.2802734 0.72363281 1.67795 11383466
1.2861328 0.72826529 1.6728516 11449262
1.2919922 0.72898942 1.6728516 11515310
1.2978516 0.72907567 1.6728516 11515053
1.4108067 0.73535156 1.6787109 11580843
1.4150391 0.73653615 1.6787109 11515050
1.4150391 0.73535156 1.6801794 11515050
1.4208984 0.7374112 1.6787109 11581100
1.4208984 0.73535156 1.6814271 11581100
1.4267578 0.73834521 1.6787109 11581100
1.4267578 0.73535156 1.6832957 11581099
1.4326172 0.73816836 1.6787109 11515307
1.4326172 0.73535156 1.6844707 11580843
1.4384766 0.73849183 1.6787109 11646382
1.4443359 0.73850852 1.6787109 11514795
1.4443359 0.73535156 1.6844367 10989222
1.4501953 0.73883349 1.6787109 11580583
1.4501953 0.73535156 1.6843984 11056032
1.4560547 0.73841488 1.6787109 11580839
1.4560547 0.73535156 1.6843185 11252392
1.4619141 0.74061966 1.6787109 11515050
1.4677734 0.74097037 1.6787109 11515050
1.5029297 0.70823365 1.7255859 11383465
1.5029297 0.70605469 1.728699 11383465
1.5087891 0.70925629 1.7255859 11514798
1.5146484 0.70887899 1.7255859 11383719
1.5205078 0.70998597 1.7255859 11449000
1.394673 0.70605469 1.7138672 11383980
1.3974609 0.7069816 1.7138672 11383980
1.3974609 0.70605469 1.7148979 11383980
1.4033203 0.70791674 1.7138672 11449259
1.4033203 0.70605469 1.7167082 11449259
1.4091797 0.70842534 1.7138672 11449514
1.4091797 0.70605469 1.7169558 11515050
1.4150391 0.70952278 1.7138672 11383975
1.4150391 0.70605469 1.7176476 11449255
1.4208984 0.70948929 1.7138672 11449513
1.4208984 0.70605469 1.7188717 11449512
1.4267578 0.71124083 1.7138672 11383978
1.4326172 0.71103418 1.7138672 11449256
1.4384766 0.71084392 1.7138672 11515305
1.39572 0.71191406 1.7080078 11580590
1.3974609 0.71221054 1.7080078 11580590
1.3974609 0.71191406 1.7084701 11580590
1.4033203 0.71271253 1.7080078 11514794
1.4033203 0.71191406 1.7088569 11514794
1.4091797 0.71269143 1.7080078 11515050
1.4091797 0.71191406 1.708989 11515050
1.4150391 0.71443975 1.7080078 11383975
1.4150391 0.71191406 1.7110381 11383975
1.4208984 0.71511346 1.7080078 11449769
1.4208984 0.71191406 1.7112123 11449513
1.4267578 0.7158798 1.7080078 11449769
1.4267578 0.71191406 1.7131927 11383978
1.4326172 0.71632004 1.7080078 11449513
1.4326172 0.71191406 1.7127017 11449256
1.4384766 0.7161302 1.7080078 11318441
1.4384766 0.71191406 1.7122017 11515305
1.4443359 0.71697527 1.7080078 10397083
1.4501953 0.71655494 1.7080078 10792862
1.4560547 0.71744037 1.7080078 11383213
1.2959441 0.71191406 1.6962891 11383725
1.2978516 0.71240652 1.6962891 11383725
1.2978516 0.71191406 1.6969204 11383725
1.3037109 0.71322453 1.6962891 11449261
1.3037109 0.71191406 1.6980982 11449261
1.3095703 0.71231878 1.6962891 11383980
1.3095703 0.71191406 1.6969788 11383980
1.5812314 0.72363281 1.7197266 11449257
1.5849609 0.7247498 1.7197266 11383464
1.5849609 0.72363281 1.7214429 11383464
1.5908203 0.72509706 1.7197266 11383723
1.5908203 0.72363281 1.7217672 11383723
1.5966797 0.72541732 1.7197266 11383467
1.5966797 0.72363281 1.7221602 11383467
1.6025391 0.72612059 1.7197266 11252136
1.6025391 0.72363281 1.7228836 11317928
1.6083984 0.72673035 1.7197266 11318186
1.6083984 0.72363281 1.7222748 11252135
1.6142578 0.72706705 1.7197266 11317929
1.6142578 0.72363281 1.7235084 11383463
1.6201172 0.72694188 1.7197266 11318185
1.6201172 0.72363281 1.7249255 11383719
1.6259766 0.72783571 1.7197266 11318183
1.6259766 0.72363281 1.7254456 11252391
1.6318359 0.72842181 1.7197266 11318183
1.6435547 0.72843879 1.7197266 11449000
1.6494141 0.72921985 1.7197266 11383465
1.2741245 0.70605469 1.7021484 11318186
1.2752031 0.70605469 1.7021484 11318186
1.2744141 0.70613641 1.7021484 11318186
1.2744141 0.70605469 1.7022519 11318186
1.2955227 0.70605469 1.7021484 11515054
1.2978516 0.70660639 1.7021484 11515054
1.2978516 0.70605469 1.7027569 11515054
1.3037109 0.70847881 1.7021484 11317674
1.3037109 0.70605469 1.7056031 11383211
1.3095703 0.70895946 1.7021484 11252136
1.3095703 0.70605469 1.7054526 11252138
1.5807501 0.71777344 1.7255859 11449257
1.5849609 0.71946871 1.7255859 11383720
1.5849609 0.71777344 1.7290754 11383464
1.5908203 0.72104478 1.7255859 11317930
1.5966797 0.72133243 1.7255859 11317929
1.6025391 0.72198457 1.7255859 11317928
1.6083984 0.72125447 1.7255859 11317928
1.6083984 0.71777344 1.7310516 11252135
1.6142578 0.72200334 1.7255859 11383463
1.6201172 0.7231307 1.7255859 11383719
1.6259766 0.72353703 1.7255859 11252391
1.4613309 0.71777344 1.7080078 11251365
1.4619141 0.71780026 1.7080078 11251365
1.4619141 0.71777344 1.7080414 11251365
1.4677734 0.71859348 1.7080078 11185314
1.4677734 0.71777344 1.7090195 11185314
1.4736328 0.71950102 1.7080078 11382692
1.4736328 0.71777344 1.7098167 11382692
1.4794922 0.71978039 1.7080078 11449001
1.4794922 0.71777344 1.7104225 11449001
1.4853516 0.72035187 1.7080078 11317672
1.4853516 0.71777344 1.7112132 11317926
1.4912109 0.72085077 1.7080078 11383460
1.4912109 0.71777344 1.7123554 11449000
1.4970703 0.72163552 1.7080078 11449510
1.4970703 0.71777344 1.7130138 11449255
1.744759 0.73535156 1.7255859 11252135
1.75297 0.73535156 1.7255859 11186857
1.7490234 0.73599768 1.7255859 11252392
1.7490234 0.73535156 1.7264096 11252392
1.7820998 0.73535156 1.7255859 8950936
1.7841797 0.73585832 1.7255859 8950936
1.7841797 0.73535156 1.7263954 8950936
1.7900391 0.73836887 1.7255859 8423820
1.7900391 0.73535156 1.7280242 5726312
1.7958984 0.73874098 1.7255859 5727601
1.7958984 0.73535156 1.7293322 5068622
1.8017578 0.73817492 1.7255859 6382693
1.8017578 0.73535156 1.7284642 6382693
1.8128736 0.73535156 1.7255859 4081739
1.8076172 0.73881334 1.7255859 6250592
1.8076172 0.73535156 1.7284534 5987418
1.6988175 0.72949219 1.7255859 11317928
1.7021484 0.73006767 1.7255859 11186600
1.7021484 0.72949219 1.7262527 11186600
1.7080078 0.73018658 1.7255859 11121064
1.7080078 0.72949219 1.7263546 11121064
1.7138672 0.73074555 1.7255859 11186599
1.7138672 0.72949219 1.7269995 11186599
1.7197266 0.73120332 1.7255859 11186599
1.7197266 0.72949219 1.7274868 11186599
1.7255859 0.73255312 1.7255859 11251882
1.7255859 0.72949219 1.7291917 11186345
1.7314453 0.73330617 1.7255859 11186347
1.7314453 0.72949219 1.7307917 11186346
1.7373047 0.73372948 1.7255859 11120810
1.7373047 0.72949219 1.731208 11186087
1.7431641 0.73510206 1.7255859 11252135
1.7548828 0.7349388 1.7255859 11186857
1.7607422 0.73528975 1.7255859 11252392
1.7666016 0.73487949 1.7255859 11318440
1.7724609 0.73483366 1.7255859 11646891
1.7783203 0.73448467 1.7255859 11317941
1.8134766 0.73514211 1.7255859 4081739
1.8193359 0.73404074 1.7255859 3291958
1.8251953 0.73449117 1.7255859 3094574
1.8310547 0.73324305 1.7255859 3225642
1.4750392 0.72363281 1.7021484 11185055
1.4794922 0.72486061 1.7021484 11317672
1.4794922 0.72363281 1.7033532 11317672
1.4853516 0.72636414 1.7021484 11317414
1.4853516 0.72363281 1.7045053 11317414
1.4912109 0.7270202 1.7021484 11514791
1.4912109 0.72363281 1.7047217 11383208
1.4970703 0.72877502 1.7021484 11514790
1.4970703 0.72363281 1.7058718 11449510
1.2692606 0.71777344 1.6845703 11383980
1.2744141 0.71908337 1.6845703 11449258
1.2744141 0.71777344 1.6864985 11449258
1.2802734 0.71918887 1.6845703 11318184
1.2802734 0.71777344 1.6867611 11318184
1.2861328 0.71963656 1.6845703 11449258
1.2861328 0.71777344 1.6875705 11515052
1.2919922 0.71988475 1.6845703 11383722
1.2919922 0.71777344 1.6875336 11514796
1.2978516 0.72131938 1.6845703 11514796
1.2978516 0.71777344 1.6895968 11449261
1.3037109 0.72188991 1.6845703 11449260
1.3037109 0.71777344 1.6900456 11383724
1.3095703 0.72139651 1.6845703 11449516
1.3095703 0.71777344 1.6899552 11383978
1.7039908 0.70605469 1.7548828 11055267
1.7080078 0.70698065 1.7548828 11120547
1.7080078 0.70605469 1.7557662 11120547
1.7138672 0.70832193 1.7548828 11120295
1.7138672 0.70605469 1.7572376 11120295
1.7197266 0.70928991 1.7548828 11120807
1.7197266 0.70605469 1.759567 11055014
1.7255859 0.70937932 1.7548828 11186599
1.7255859 0.70605469 1.7601033 11055014
1.7314453 0.71125865 1.7548828 11120808
1.7339385 0.71191406 1.7548828 11120808
1.7373047 0.71258742 1.7548828 11186086
1.7373047 0.71191406 1.7556162 11186086
1.7431641 0.71295804 1.7548828 11186342
1.7431641 0.71191406 1.756047 11186342
1.7490234 0.71389133 1.7548828 11121061
1.7490234 0.71191406 1.7566779 11121061
1.7548828 0.71299446 1.7548828 11186598
1.7548828 0.71191406 1.7559261 11186598
1.7607422 0.71275598 1.7548828 11515054
1.7607422 0.71191406 1.7556757 11515054
1.7666016 0.71295696 1.7548828 10068390
1.7666016 0.71191406 1.7559134 10068390
1.7724609 0.71284056 1.7548828 6581350
1.7724609 0.71191406 1.7559291 6581350
1.7783203 0.71325821 1.7548828 4937036
1.7783203 0.71191406 1.7564565 4937036
1.7841797 0.7140007 1.7548828 5594707
1.7841797 0.71191406 1.7574099 5594707
1.7900391 0.71433949 1.7548828 6579038
1.7900391 0.71191406 1.7584819 6250324
1.7958984 0.71581542 1.7548828 5987927
1.7958984 0.71191406 1.7598023 6316123
1.8017578 0.71524137 1.7548828 6250592
1.8017578 0.71191406 1.7593327 5658971
1.8076172 0.71392965 1.7548828 3356973
1.8076172 0.71191406 1.7576417 3356973
1.8134766 0.71240431 1.7548828 3488307
1.8134766 0.71191406 1.7555921 3488307
1.8193359 0.714661 1.7548828 2830636
1.8193359 0.71191406 1.7578955 3290672
1.5495425 0.73535156 1.7021484 11515051
1.5505056 0.73535156 1.7021484 11515051
1.5498047 0.73541117 1.7021484 11515051
1.5498047 0.73535156 1.7022237 11515051
1.5585048 0.73535156 1.7021484 11514795
1.5615234 0.73567319 1.7021484 11449259
1.5615234 0.73535156 1.7025479 11449259
1.5673828 0.73570216 1.7021484 11383722
1.5673828 0.73535156 1.7025574 11383722
1.5732422 0.73536885 1.7021484 11449513
1.5732422 0.73535156 1.7021703 11449513
1.5791016 0.7365464 1.7021484 11383722
1.5791016 0.73535156 1.703795 11383722
1.5849609 0.73712265 1.7021484 11383721
1.5849609 0.73535156 1.7047312 11383721
1.5908203 0.73846608 1.7021484 11449513
1.5908203 0.73535156 1.7060311 11317930
1.5966797 0.73841786 1.7021484 11383978
1.5966797 0.73535156 1.7069823 11449257
1.6025391 0.73967904 1.7021484 11383721
1.6083984 0.73986602 1.7021484 11383980
1.6142578 0.74010009 1.7021484 11383977
1.6201172 0.73951602 1.7021484 11318441
1.6201172 0.73535156 1.7077453 11318185
1.6259766 0.73995787 1.7021484 11252648
1.6318359 0.7408908 1.7021484 11383719
1.6904297 0.72375286 1.7314453 11186599
1.6904297 0.72363281 1.7315962 11186599
1.6962891 0.72434598 1.7314453 11186856
1.6962891 0.72363281 1.732599 11186856
1.7021484 0.72502869 1.7314453 11121319
1.7021484 0.72363281 1.7332642 11121319
1.7080078 0.72567064 1.7314453 11120808
1.7080078 0.72363281 1.7336048 11120808
1.7138672 0.72599709 1.7314453 11120807
1.7138672 0.72363281 1.7345091 11121062
1.7197266 0.72597128 1.7314453 11186343
1.7197266 0.72363281 1.7349843 11186598
1.7255859 0.7272684 1.7314453 11186345
1.7255859 0.72363281 1.7363385 11251624
1.7314453 0.72889817 1.7314453 11186346
1.7373047 0.72931623 1.7314453 11186087
1.8193359 0.72363281 1.7368082 2962468
1.4000912 0.72949219 1.6845703 11514796
1.4033203 0.73046172 1.6845703 11515050
1.4033203 0.72949219 1.6858393 11515050
1.4091797 0.73137045 1.6845703 11515307
1.4091797 0.72949219 1.6874316 11515307
1.4150391 0.73180342 1.6845703 11449513
1.4150391 0.72949219 1.6896417 11515306
1.4208984 0.73296285 1.6845703 11646381
1.4267578 0.73437685 1.6845703 11581099
1.4326172 0.73528522 1.6845703 11580843
1.4443359 0.7352792 1.6845703 10989222
1.4501953 0.73524702 1.6845703 11056032
1.4560547 0.73521698 1.6845703 11252392
1.5434145 0.72949219 1.7080078 11646123
1.5439453 0.72961003 1.7080078 11646123
1.5439453 0.72949219 1.7081242 11646123
1.5498047 0.73093176 1.7080078 11514793
1.5498047 0.72949219 1.7093648 11514793
1.5556641 0.73096275 1.7080078 11514538
1.5556641 0.72949219 1.7096156 11514538
1.5615234 0.73105901 1.7080078 11449259
1.5615234 0.72949219 1.7100015 11449259
1.5673828 0.73160046 1.7080078 11514537
1.5673828 0.72949219 1.7109083 11514537
1.5732422 0.73120248 1.7080078 11383465
1.5732422 0.72949219 1.710142 11383465
1.5791016 0.73224121 1.7080078 11515049
1.5791016 0.72949219 1.7112681 11514794
1.5849609 0.73323107 1.7080078 11449515
1.5849609 0.72949219 1.7126764 11515051
1.5908203 0.73370999 1.7080078 11317930
1.5966797 0.73456126 1.7080078 11449257
1.6201172 0.73516214 1.7080078 11318185
1.5253631 0.71191406 1.7255859 11449001
1.5263672 0.71225715 1.7255859 11449001
1.5263672 0.71191406 1.7259343 11449001
1.5322266 0.71329755 1.7255859 11449256
1.5322266 0.71191406 1.7272011 11449256
1.5380859 0.71415764 1.7255859 11383462
1.5380859 0.71191406 1.7279783 11383462
1.5439453 0.7148338 1.7255859 11383462
1.5439453 0.71191406 1.7297441 11449255
1.5498047 0.71529657 1.7255859 11449256
1.5498047 0.71191406 1.7299148 11383720
1.5556641 0.71568131 1.7255859 11383465
1.5556641 0.71191406 1.7299734 11317930
1.5615234 0.71583641 1.7255859 11383722
1.5615234 0.71191406 1.7301875 11383467
1.5673828 0.71620268 1.7255859 11449258
1.5673828 0.71191406 1.7308367 11383210
1.5732422 0.71712488 1.7255859 11449257
1.5791016 0.71745443 1.7255859 11449257
1.4334311 0.73535156 1.6845703 11580843
1.4432942 0.73535156 1.6845703 10989222
1.4384766 0.73557132 1.6845703 11515053
1.4384766 0.73535156 1.6848159 11515053
1.456538 0.73535156 1.6845703 11252392
1.4619141 0.73651838 1.6845703 11449257
1.4619141 0.73535156 1.6859341 11449257
1.4677734 0.73668522 1.6845703 11514793
1.4677734 0.73535156 1.6859902 11514793
1.4736328 0.73780578 1.6845703 11449255
1.4736328 0.73535156 1.6875658 11580586
1.4794922 0.73848468 1.6845703 11580330
1.4794922 0.73535156 1.6884876 11449257
1.4853516 0.73908734 1.6845703 11515049
1.4853516 0.73535156 1.6903929 11580582
1.4912109 0.74082148 1.6845703 11514793
